0.7455885 2.96 -0.1486775
0.6520524 2.96 -0.1233764
0.5552557 2.96 -0.124494
0.4617527 2.96 -0.1500428
0.3744553 2.96 -0.1924357
0.2930377 2.96 -0.2453219
0.2161499 2.96 -0.3046569
0.1424482 2.96 -0.3679151
0.07074383 2.96 -0.4334377
0 2.96 -0.5
4 2.95 -0.5
3.934048 2.95 -0.4286867
3.866153 2.95 -0.3592346
3.794007 2.95 -0.2942473
3.71461 2.95 -0.238462
3.625039 2.95 -0.2018153
3.528699 2.95 -0.200612
3.438191 2.95 -0.2349782
3.355579 2.95 -0.2859788
3.277085 2.95 -0.3431885
3.199111 2.95 -0.401115
3.11822 2.95 -0.4548477
3.030675 2.95 -0.4965331
2.935187 2.95 -0.5099323
2.842664 2.95 -0.4823111
2.76072 2.95 -0.430416
2.686295 2.95 -0.3680411
2.615501 2.95 -0.3015286
2.545094 2.95 -0.2346095
2.47177 2.95 -0.1709236
2.391328 2.95 -0.116708
2.299553 2.95 -0.08697343
2.204332 2.95 -0.1014299
2.118719 2.95 -0.1468568
2.041806 2.95 -0.2060875
1.969833 2.95 -0.2713072
1.899875 2.95 -0.3386986
1.829535 2.95 -0.4056866
1.756428 2.95 -0.4696205
1.677743 2.95 -0.5264723
1.590373 2.95 -0.5683562
1.494658 2.95 -0.5813726
1.399648 2.95 -0.5627313
1.310837 2.95 -0.5236878
1.227705 2.95 -0.4735149
1.148323 2.95 -0.4175487
1.070828 2.95 -0.3589887
0.9935307 2.95 -0.3001631
0.9147773 2.95 -0.243313
0.8327758 2.95 -0.1913012
0.7455885 2.95 -0.1486775
0.6520524 2.95 -0.1233764
0.5552557 2.95 -0.124494
0.4617527 2.95 -0.1500428
0.3744553 2.95 -0.1924357
0.2930377 2.95 -0.2453219
0.2161499 2.95 -0.3046569
0.1424482 2.95 -0.3679151
0.07074383 2.95 -0.4334377
0 2.95 -0.5
4 2.94 -0.5
3.934048 2.94 -0.4286867
3.866153 2.94 -0.3592346
3.794007 2.94 -0.2942473
3.71461 2.94 -0.238462
3.625039 2.94 -0.2018153
3.528699 2.94 -0.200612
3.438191 2.94 -0.2349782
3.355579 2.94 -0.2859788
3.277085 2.94 -0.3431885
3.199111 2.94 -0.401115
3.11822 2.94 -0.4548477
3.030675 2.94 -0.4965331
2.935187 2.94 -0.5099323
2.842664 2.94 -0.4823111
2.76072 2.94 -0.430416
2.686295 2.94 -0.3680411
2.615501 2.94 -0.3015286
2.545094 2.94 -0.2346095
2.47177 2.94 -0.1709236
2.391328 2.94 -0.116708
2.299553 2.94 -0.08697343
2.204332 2.94 -0.1014299
2.118719 2.94 -0.1468568
2.041806 2.94 -0.2060875
1.969833 2.94 -0.2713072
1.899875 2.94 -0.3386986
1.829535 2.94 -0.4056866
1.756428 2.94 -0.4696205
1.677743 2.94 -0.5264723
1.590373 2.94 -0.5683562
1.494658 2.94 -0.5813726
1.399648 2.94 -0.5627313
1.310837 2.94 -0.5236878
1.227705 2.94 -0.4735149
1.148323 2.94 -0.4175487
1.070828 2.94 -0.3589887
0.9935307 2.94 -0.3001631
0.9147773 2.94 -0.243313
0.8327758 2.94 -0.1913012
0.7455885 2.94 -0.1486775
0.6520524 2.94 -0.1233764
0.5552557 2.94 -0.124494
0.4617527 2.94 -0.1500428
0.3744553 2.94 -0.1924357
0.2930377 2.94 -0.2453219
0.2161499 2.94 -0.3046569
0.1424482 2.94 -0.3679151
0.07074383 2.94 -0.4334377
0 2.94 -0.5
4 2.93 -0.5
3.934048 2.93 -0.4286867
3.866153 2.93 -0.3592346
3.794007 2.93 -0.2942473
3.71461 2.93 -0.238462
3.625039 2.93 -0.2018153
3.528699 2.93 -0.200612
3.438191 2.93 -0.2349782
3.355579 2.93 -0.2859788
3.277085 2.93 -0.3431885
3.199111 2.93 -0.401115
3.11822 2.93 -0.4548477
3.030675 2.93 -0.4965331
2.935187 2.93 -0.5099323
2.842664 2.93 -0.4823111
2.76072 2.93 -0.430416
2.686295 2.93 -0.3680411
2.615501 2.93 -0.3015286
2.545094 2.93 -0.2346095
2.47177 2.93 -0.1709236
2.391328 2.93 -0.116708
2.299553 2.93 -0.08697343
2.204332 2.93 -0.1014299
2.118719 2.93 -0.1468568
2.041806 2.93 -0.2060875
1.969833 2.93 -0.2713072
1.899875 2.93 -0.3386986
1.829535 2.93 -0.4056866
1.756428 2.93 -0.4696205
1.677743 2.93 -0.5264723
1.590373 2.93 -0.5683562
1.494658 2.93 -0.5813726
1.399648 2.93 -0.5627313
1.310837 2.93 -0.5236878
1.227705 2.93 -0.4735149
1.148323 2.93 -0.4175487
1.070828 2.93 -0.3589887
0.9935307 2.93 -0.3001631
0.9147773 2.93 -0.243313
0.8327758 2.93 -0.1913012
0.7455885 2.93 -0.1486775
0.6520524 2.93 -0.1233764
0.5552557 2.93 -0.124494
0.4617527 2.93 -0.1500428
0.3744553 2.93 -0.1924357
0.2930377 2.93 -0.2453219
0.2161499 2.93 -0.3046569
0.1424482 2.93 -0.3679151
0.07074383 2.93 -0.4334377
0 2.93 -0.5
4 2.92 -0.5
3.934048 2.92 -0.4286867
3.866153 2.92 -0.3592346
3.794007 2.92 -0.2942473
3.71461 2.92 -0.238462
3.625039 2.92 -0.2018153
3.528699 2.92 -0.200612
3.438191 2.92 -0.2349782
3.355579 2.92 -0.2859788
3.277085 2.92 -0.3431885
3.199111 2.92 -0.401115
3.11822 2.92 -0.4548477
3.030675 2.92 -0.4965331
2.935187 2.92 -0.5099323
2.842664 2.92 -0.4823111
2.76072 2.92 -0.430416
2.686295 2.92 -0.3680411
2.615501 2.92 -0.3015286
2.545094 2.92 -0.2346095
2.47177 2.92 -0.1709236
2.391328 2.92 -0.116708
2.299553 2.92 -0.08697343
2.204332 2.92 -0.1014299
2.118719 2.92 -0.1468568
2.041806 2.92 -0.2060875
1.969833 2.92 -0.2713072
1.899875 2.92 -0.3386986
1.829535 2.92 -0.4056866
1.756428 2.92 -0.4696205
1.677743 2.92 -0.5264723
1.590373 2.92 -0.5683562
1.494658 2.92 -0.5813726
1.399648 2.92 -0.5627313
1.310837 2.92 -0.5236878
1.227705 2.92 -0.4735149
1.148323 2.92 -0.4175487
1.070828 2.92 -0.3589887
0.9935307 2.92 -0.3001631
0.9147773 2.92 -0.243313
0.8327758 2.92 -0.1913012
0.7455885 2.92 -0.1486775
0.6520524 2.92 -0.1233764
0.5552557 2.92 -0.124494
0.4617527 2.92 -0.1500428
0.3744553 2.92 -0.1924357
0.2930377 2.92 -0.2453219
0.2161499 2.92 -0.3046569
0.1424482 2.92 -0.3679151
0.07074383 2.92 -0.4334377
0 2.92 -0.5
4 2.91 -0.5
3.934048 2.91 -0.4286867
3.866153 2.91 -0.3592346
3.794007 2.91 -0.2942473
3.71461 2.91 -0.238462
3.625039 2.91 -0.2018153
3.528699 2.91 -0.200612
3.438191 2.91 -0.2349782
3.355579 2.91 -0.2859788
3.277085 2.91 -0.3431885
3.199111 2.91 -0.401115
3.11822 2.91 -0.4548477
3.030675 2.91 -0.4965331
2.935187 2.91 -0.5099323
2.842664 2.91 -0.4823111
2.76072 2.91 -0.430416
2.686295 2.91 -0.3680411
2.615501 2.91 -0.3015286
2.545094 2.91 -0.2346095
2.47177 2.91 -0.1709236
2.391328 2.91 -0.116708
2.299553 2.91 -0.08697343
2.204332 2.91 -0.1014299
2.118719 2.91 -0.1468568
2.041806 2.91 -0.2060875
1.969833 2.91 -0.2713072
1.899875 2.91 -0.3386986
1.829535 2.91 -0.4056866
1.756428 2.91 -0.4696205
1.677743 2.91 -0.5264723
1.590373 2.91 -0.5683562
1.494658 2.91 -0.5813726
1.399648 2.91 -0.5627313
1.310837 2.91 -0.5236878
1.227705 2.91 -0.4735149
1.148323 2.91 -0.4175487
1.070828 2.91 -0.3589887
0.9935307 2.91 -0.3001631
0.9147773 2.91 -0.243313
0.8327758 2.91 -0.1913012
0.7455885 2.91 -0.1486775
0.6520524 2.91 -0.1233764
0.5552557 2.91 -0.124494
0.4617527 2.91 -0.1500428
0.3744553 2.91 -0.1924357
0.2930377 2.91 -0.2453219
0.2161499 2.91 -0.3046569
0.1424482 2.91 -0.3679151
0.07074383 2.91 -0.4334377
0 2.91 -0.5
4 2.9 -0.5
3.934048 2.9 -0.4286867
3.866153 2.9 -0.3592346
3.794007 2.9 -0.2942473
3.71461 2.9 -0.238462
3.625039 2.9 -0.2018153
3.528699 2.9 -0.200612
3.438191 2.9 -0.2349782
3.355579 2.9 -0.2859788
3.277085 2.9 -0.3431885
3.199111 2.9 -0.401115
3.11822 2.9 -0.4548477
3.030675 2.9 -0.4965331
2.935187 2.9 -0.5099323
2.842664 2.9 -0.4823111
2.76072 2.9 -0.430416
2.686295 2.9 -0.3680411
2.615501 2.9 -0.3015286
2.545094 2.9 -0.2346095
2.47177 2.9 -0.1709236
2.391328 2.9 -0.116708
2.299553 2.9 -0.08697343
2.204332 2.9 -0.1014299
2.118719 2.9 -0.1468568
2.041806 2.9 -0.2060875
1.969833 2.9 -0.2713072
1.899875 2.9 -0.3386986
1.829535 2.9 -0.4056866
1.756428 2.9 -0.4696205
1.677743 2.9 -0.5264723
1.590373 2.9 -0.5683562
1.494658 2.9 -0.5813726
1.399648 2.9 -0.5627313
1.310837 2.9 -0.5236878
1.227705 2.9 -0.4735149
1.148323 2.9 -0.4175487
1.070828 2.9 -0.3589887
0.9935307 2.9 -0.3001631
0.9147773 2.9 -0.243313
0.8327758 2.9 -0.1913012
0.7455885 2.9 -0.1486775
0.6520524 2.9 -0.1233764
0.5552557 2.9 -0.124494
0.4617527 2.9 -0.1500428
0.3744553 2.9 -0.1924357
0.2930377 2.9 -0.2453219
0.2161499 2.9 -0.3046569
0.1424482 2.9 -0.3679151
0.07074383 2.9 -0.4334377
0 2.9 -0.5
4 2.89 -0.5
3.934048 2.89 -0.4286867
3.866153 2.89 -0.3592346
3.794007 2.89 -0.2942473
3.71461 2.89 -0.238462
3.625039 2.89 -0.2018153
3.528699 2.89 -0.200612
3.438191 2.89 -0.2349782
3.355579 2.89 -0.2859788
3.277085 2.89 -0.3431885
3.199111 2.89 -0.401115
3.11822 2.89 -0.4548477
3.030675 2.89 -0.4965331
2.935187 2.89 -0.5099323
2.842664 2.89 -0.4823111
2.76072 2.89 -0.430416
2.686295 2.89 -0.3680411
2.615501 2.89 -0.3015286
2.545094 2.89 -0.2346095
2.47177 2.89 -0.1709236
2.391328 2.89 -0.116708
2.299553 2.89 -0.08697343
2.204332 2.89 -0.1014299
2.118719 2.89 -0.1468568
2.041806 2.89 -0.2060875
1.969833 2.89 -0.2713072
1.899875 2.89 -0.3386986
1.829535 2.89 -0.4056866
1.756428 2.89 -0.4696205
1.677743 2.89 -0.5264723
1.590373 2.89 -0.5683562
1.494658 2.89 -0.5813726
1.399648 2.89 -0.5627313
1.310837 2.89 -0.5236878
1.227705 2.89 -0.4735149
1.148323 2.89 -0.4175487
1.070828 2.89 -0.3589887
0.9935307 2.89 -0.3001631
0.9147773 2.89 -0.243313
0.8327758 2.89 -0.1913012
0.7455885 2.89 -0.1486775
0.6520524 2.89 -0.1233764
0.5552557 2.89 -0.124494
0.4617527 2.89 -0.1500428
0.3744553 2.89 -0.1924357
0.2930377 2.89 -0.2453219
0.2161499 2.89 -0.3046569
0.1424482 2.89 -0.3679151
0.07074383 2.89 -0.4334377
0 2.89 -0.5
4 2.88 -0.5
3.934048 2.88 -0.4286867
3.866153 2.88 -0.3592346
3.794007 2.88 -0.2942473
3.71461 2.88 -0.238462
3.625039 2.88 -0.2018153
3.528699 2.88 -0.200612
3.438191 2.88 -0.2349782
3.355579 2.88 -0.2859788
3.277085 2.88 -0.3431885
3.199111 2.88 -0.401115
3.11822 2.88 -0.4548477
3.030675 2.88 -0.4965331
2.935187 2.88 -0.5099323
2.842664 2.88 -0.4823111
2.76072 2.88 -0.430416
2.686295 2.88 -0.3680411
2.615501 2.88 -0.3015286
2.545094 2.88 -0.2346095
2.47177 2.88 -0.1709236
2.391328 2.88 -0.116708
2.299553 2.88 -0.08697343
2.204332 2.88 -0.1014299
2.118719 2.88 -0.1468568
2.041806 2.88 -0.2060875
1.969833 2.88 -0.2713072
1.899875 2.88 -0.3386986
1.829535 2.88 -0.4056866
1.756428 2.88 -0.4696205
1.677743 2.88 -0.5264723
1.590373 2.88 -0.5683562
1.494658 2.88 -0.5813726
1.399648 2.88 -0.5627313
1.310837 2.88 -0.5236878
1.227705 2.88 -0.4735149
1.148323 2.88 -0.4175487
1.070828 2.88 -0.3589887
0.9935307 2.88 -0.3001631
0.9147773 2.88 -0.243313
0.8327758 2.88 -0.1913012
0.7455885 2.88 -0.1486775
0.6520524 2.88 -0.1233764
0.5552557 2.88 -0.124494
0.4617527 2.88 -0.1500428
0.3744553 2.88 -0.1924357
0.2930377 2.88 -0.2453219
0.2161499 2.88 -0.3046569
0.1424482 2.88 -0.3679151
0.07074383 2.88 -0.4334377
0 2.88 -0.5
4 2.87 -0.5
3.934048 2.87 -0.4286867
3.866153 2.87 -0.3592346
3.794007 2.87 -0.2942473
3.71461 2.87 -0.238462
3.625039 2.87 -0.2018153
3.528699 2.87 -0.200612
3.438191 2.87 -0.2349782
3.355579 2.87 -0.2859788
3.277085 2.87 -0.3431885
3.199111 2.87 -0.401115
3.11822 2.87 -0.4548477
3.030675 2.87 -0.4965331
2.935187 2.87 -0.5099323
2.842664 2.87 -0.4823111
2.76072 2.87 -0.430416
2.686295 2.87 -0.3680411
2.615501 2.87 -0.3015286
2.545094 2.87 -0.2346095
2.47177 2.87 -0.1709236
2.391328 2.87 -0.116708
2.299553 2.87 -0.08697343
2.204332 2.87 -0.1014299
2.118719 2.87 -0.1468568
2.041806 2.87 -0.2060875
1.969833 2.87 -0.2713072
1.899875 2.87 -0.3386986
1.829535 2.87 -0.4056866
1.756428 2.87 -0.4696205
1.677743 2.87 -0.5264723
1.590373 2.87 -0.5683562
1.494658 2.87 -0.5813726
1.399648 2.87 -0.5627313
1.310837 2.87 -0.5236878
1.227705 2.87 -0.4735149
1.148323 2.87 -0.4175487
1.070828 2.87 -0.3589887
0.9935307 2.87 -0.3001631
0.9147773 2.87 -0.243313
0.8327758 2.87 -0.1913012
0.7455885 2.87 -0.1486775
0.6520524 2.87 -0.1233764
0.5552557 2.87 -0.124494
0.4617527 2.87 -0.1500428
0.3744553 2.87 -0.1924357
0.2930377 2.87 -0.2453219
0.2161499 2.87 -0.3046569
0.1424482 2.87 -0.3679151
0.07074383 2.87 -0.4334377
0 2.87 -0.5
4 2.86 -0.5
3.934048 2.86 -0.4286867
3.866153 2.86 -0.3592346
3.794007 2.86 -0.2942473
3.71461 2.86 -0.238462
3.625039 2.86 -0.2018153
3.528699 2.86 -0.200612
3.438191 2.86 -0.2349782
3.355579 2.86 -0.2859788
3.277085 2.86 -0.3431885
3.199111 2.86 -0.401115
3.11822 2.86 -0.4548477
3.030675 2.86 -0.4965331
2.935187 2.86 -0.5099323
2.842664 2.86 -0.4823111
2.76072 2.86 -0.430416
2.686295 2.86 -0.3680411
2.615501 2.86 -0.3015286
2.545094 2.86 -0.2346095
2.47177 2.86 -0.1709236
2.391328 2.86 -0.116708
2.299553 2.86 -0.08697343
2.204332 2.86 -0.1014299
2.118719 2.86 -0.1468568
2.041806 2.86 -0.2060875
1.969833 2.86 -0.2713072
1.899875 2.86 -0.3386986
1.829535 2.86 -0.4056866
1.756428 2.86 -0.4696205
1.677743 2.86 -0.5264723
1.590373 2.86 -0.5683562
1.494658 2.86 -0.5813726
1.399648 2.86 -0.5627313
1.310837 2.86 -0.5236878
1.227705 2.86 -0.4735149
1.148323 2.86 -0.4175487
1.070828 2.86 -0.3589887
0.9935307 2.86 -0.3001631
0.9147773 2.86 -0.243313
0.8327758 2.86 -0.1913012
0.7455885 2.86 -0.1486775
0.6520524 2.86 -0.1233764
0.5552557 2.86 -0.124494
0.4617527 2.86 -0.1500428
0.3744553 2.86 -0.1924357
0.2930377 2.86 -0.2453219
0.2161499 2.86 -0.3046569
0.1424482 2.86 -0.3679151
0.07074383 2.86 -0.4334377
0 2.86 -0.5
4 2.85 -0.5
3.934048 2.85 -0.4286867
3.866153 2.85 -0.3592346
3.794007 2.85 -0.2942473
3.71461 2.85 -0.238462
3.625039 2.85 -0.2018153
3.528699 2.85 -0.200612
3.438191 2.85 -0.2349782
3.355579 2.85 -0.2859788
3.277085 2.85 -0.3431885
3.199111 2.85 -0.401115
3.11822 2.85 -0.4548477
3.030675 2.85 -0.4965331
2.935187 2.85 -0.5099323
2.842664 2.85 -0.4823111
2.76072 2.85 -0.430416
2.686295 2.85 -0.3680411
2.615501 2.85 -0.3015286
2.545094 2.85 -0.2346095
2.47177 2.85 -0.1709236
2.391328 2.85 -0.116708
2.299553 2.85 -0.08697343
2.204332 2.85 -0.1014299
2.118719 2.85 -0.1468568
2.041806 2.85 -0.2060875
1.969833 2.85 -0.2713072
1.899875 2.85 -0.3386986
1.829535 2.85 -0.4056866
1.756428 2.85 -0.4696205
1.677743 2.85 -0.5264723
1.590373 2.85 -0.5683562
1.494658 2.85 -0.5813726
1.399648 2.85 -0.5627313
1.310837 2.85 -0.5236878
1.227705 2.85 -0.4735149
1.148323 2.85 -0.4175487
1.070828 2.85 -0.3589887
0.9935307 2.85 -0.3001631
0.9147773 2.85 -0.243313
0.8327758 2.85 -0.1913012
0.7455885 2.85 -0.1486775
0.6520524 2.85 -0.1233764
0.5552557 2.85 -0.124494
0.4617527 2.85 -0.1500428
0.3744553 2.85 -0.1924357
0.2930377 2.85 -0.2453219
0.2161499 2.85 -0.3046569
0.1424482 2.85 -0.3679151
0.07074383 2.85 -0.4334377
0 2.85 -0.5
4 2.84 -0.5
3.934048 2.84 -0.4286867
3.866153 2.84 -0.3592346
3.794007 2.84 -0.2942473
3.71461 2.84 -0.238462
3.625039 2.84 -0.2018153
3.528699 2.84 -0.200612
3.438191 2.84 -0.2349782
3.355579 2.84 -0.2859788
3.277085 2.84 -0.3431885
3.199111 2.84 -0.401115
3.11822 2.84 -0.4548477
3.030675 2.84 -0.4965331
2.935187 2.84 -0.5099323
2.842664 2.84 -0.4823111
2.76072 2.84 -0.430416
2.686295 2.84 -0.3680411
2.615501 2.84 -0.3015286
2.545094 2.84 -0.2346095
2.47177 2.84 -0.1709236
2.391328 2.84 -0.116708
2.299553 2.84 -0.08697343
2.204332 2.84 -0.1014299
2.118719 2.84 -0.1468568
2.041806 2.84 -0.2060875
1.969833 2.84 -0.2713072
1.899875 2.84 -0.3386986
1.829535 2.84 -0.4056866
1.756428 2.84 -0.4696205
1.677743 2.84 -0.5264723
1.590373 2.84 -0.5683562
1.494658 2.84 -0.5813726
1.399648 2.84 -0.5627313
1.310837 2.84 -0.5236878
1.227705 2.84 -0.4735149
1.148323 2.84 -0.4175487
1.070828 2.84 -0.3589887
0.9935307 2.84 -0.3001631
0.9147773 2.84 -0.243313
0.8327758 2.84 -0.1913012
0.7455885 2.84 -0.1486775
0.6520524 2.84 -0.1233764
0.5552557 2.84 -0.124494
0.4617527 2.84 -0.1500428
0.3744553 2.84 -0.1924357
0.2930377 2.84 -0.2453219
0.2161499 2.84 -0.3046569
0.1424482 2.84 -0.3679151
0.07074383 2.84 -0.4334377
0 2.84 -0.5
4 2.83 -0.5
3.934048 2.83 -0.4286867
3.866153 2.83 -0.3592346
3.794007 2.83 -0.2942473
3.71461 2.83 -0.238462
3.625039 2.83 -0.2018153
3.528699 2.83 -0.200612
3.438191 2.83 -0.2349782
3.355579 2.83 -0.2859788
3.277085 2.83 -0.3431885
3.199111 2.83 -0.401115
3.11822 2.83 -0.4548477
3.030675 2.83 -0.4965331
2.935187 2.83 -0.5099323
2.842664 2.83 -0.4823111
2.76072 2.83 -0.430416
2.686295 2.83 -0.3680411
2.615501 2.83 -0.3015286
2.545094 2.83 -0.2346095
2.47177 2.83 -0.1709236
2.391328 2.83 -0.116708
2.299553 2.83 -0.08697343
2.204332 2.83 -0.1014299
2.118719 2.83 -0.1468568
2.041806 2.83 -0.2060875
1.969833 2.83 -0.2713072
1.899875 2.83 -0.3386986
1.829535 2.83 -0.4056866
1.756428 2.83 -0.4696205
1.677743 2.83 -0.5264723
1.590373 2.83 -0.5683562
1.494658 2.83 -0.5813726
1.399648 2.83 -0.5627313
1.310837 2.83 -0.5236878
1.227705 2.83 -0.4735149
1.148323 2.83 -0.4175487
1.070828 2.83 -0.3589887
0.9935307 2.83 -0.3001631
0.9147773 2.83 -0.243313
0.8327758 2.83 -0.1913012
0.7455885 2.83 -0.1486775
0.6520524 2.83 -0.1233764
0.5552557 2.83 -0.124494
0.4617527 2.83 -0.1500428
0.3744553 2.83 -0.1924357
0.2930377 2.83 -0.2453219
0.2161499 2.83 -0.3046569
0.1424482 2.83 -0.3679151
0.07074383 2.83 -0.4334377
0 2.83 -0.5
4 2.82 -0.5
3.934048 2.82 -0.4286867
3.866153 2.82 -0.3592346
3.794007 2.82 -0.2942473
3.71461 2.82 -0.238462
3.625039 2.82 -0.2018153
3.528699 2.82 -0.200612
3.438191 2.82 -0.2349782
3.355579 2.82 -0.2859788
3.277085 2.82 -0.3431885
3.199111 2.82 -0.401115
3.11822 2.82 -0.4548477
3.030675 2.82 -0.4965331
2.935187 2.82 -0.5099323
2.842664 2.82 -0.4823111
2.76072 2.82 -0.430416
2.686295 2.82 -0.3680411
2.615501 2.82 -0.3015286
2.545094 2.82 -0.2346095
2.47177 2.82 -0.1709236
2.391328 2.82 -0.116708
2.299553 2.82 -0.08697343
2.204332 2.82 -0.1014299
2.118719 2.82 -0.1468568
2.041806 2.82 -0.2060875
1.969833 2.82 -0.2713072
1.899875 2.82 -0.3386986
1.829535 2.82 -0.4056866
1.756428 2.82 -0.4696205
1.677743 2.82 -0.5264723
1.590373 2.82 -0.5683562
1.494658 2.82 -0.5813726
1.399648 2.82 -0.5627313
1.310837 2.82 -0.5236878
1.227705 2.82 -0.4735149
1.148323 2.82 -0.4175487
1.070828 2.82 -0.3589887
0.9935307 2.82 -0.3001631
0.9147773 2.82 -0.243313
0.8327758 2.82 -0.1913012
0.7455885 2.82 -0.1486775
0.6520524 2.82 -0.1233764
0.5552557 2.82 -0.124494
0.4617527 2.82 -0.1500428
0.3744553 2.82 -0.1924357
0.2930377 2.82 -0.2453219
0.2161499 2.82 -0.3046569
0.1424482 2.82 -0.3679151
0.07074383 2.82 -0.4334377
0 2.82 -0.5
4 2.81 -0.5
3.934048 2.81 -0.4286867
3.866153 2.81 -0.3592346
3.794007 2.81 -0.2942473
3.71461 2.81 -0.238462
3.625039 2.81 -0.2018153
3.528699 2.81 -0.200612
3.438191 2.81 -0.2349782
3.355579 2.81 -0.2859788
3.277085 2.81 -0.3431885
3.199111 2.81 -0.401115
3.11822 2.81 -0.4548477
3.030675 2.81 -0.4965331
2.935187 2.81 -0.5099323
2.842664 2.81 -0.4823111
2.76072 2.81 -0.430416
2.686295 2.81 -0.3680411
2.615501 2.81 -0.3015286
2.545094 2.81 -0.2346095
2.47177 2.81 -0.1709236
2.391328 2.81 -0.116708
2.299553 2.81 -0.08697343
2.204332 2.81 -0.1014299
2.118719 2.81 -0.1468568
2.041806 2.81 -0.2060875
1.969833 2.81 -0.2713072
1.899875 2.81 -0.3386986
1.829535 2.81 -0.4056866
1.756428 2.81 -0.4696205
1.677743 2.81 -0.5264723
1.590373 2.81 -0.5683562
1.494658 2.81 -0.5813726
1.399648 2.81 -0.5627313
1.310837 2.81 -0.5236878
1.227705 2.81 -0.4735149
1.148323 2.81 -0.4175487
1.070828 2.81 -0.3589887
0.9935307 2.81 -0.3001631
0.9147773 2.81 -0.243313
0.8327758 2.81 -0.1913012
0.7455885 2.81 -0.1486775
0.6520524 2.81 -0.1233764
0.5552557 2.81 -0.124494
0.4617527 2.81 -0.1500428
0.3744553 2.81 -0.1924357
0.2930377 2.81 -0.2453219
0.2161499 2.81 -0.3046569
0.1424482 2.81 -0.3679151
0.07074383 2.81 -0.4334377
0 2.81 -0.5
4 2.8 -0.5
3.934048 2.8 -0.4286867
3.866153 2.8 -0.3592346
3.794007 2.8 -0.2942473
3.71461 2.8 -0.238462
3.625039 2.8 -0.2018153
3.528699 2.8 -0.200612
3.438191 2.8 -0.2349782
3.355579 2.8 -0.2859788
3.277085 2.8 -0.3431885
3.199111 2.8 -0.401115
3.11822 2.8 -0.4548477
3.030675 2.8 -0.4965331
2.935187 2.8 -0.5099323
2.842664 2.8 -0.4823111
2.76072 2.8 -0.430416
2.686295 2.8 -0.3680411
2.615501 2.8 -0.3015286
2.545094 2.8 -0.2346095
2.47177 2.8 -0.1709236
2.391328 2.8 -0.116708
2.299553 2.8 -0.08697343
2.204332 2.8 -0.1014299
2.118719 2.8 -0.1468568
2.041806 2.8 -0.2060875
1.969833 2.8 -0.2713072
1.899875 2.8 -0.3386986
1.829535 2.8 -0.4056866
1.756428 2.8 -0.4696205
1.677743 2.8 -0.5264723
1.590373 2.8 -0.5683562
1.494658 2.8 -0.5813726
1.399648 2.8 -0.5627313
1.310837 2.8 -0.5236878
1.227705 2.8 -0.4735149
1.148323 2.8 -0.4175487
1.070828 2.8 -0.3589887
0.9935307 2.8 -0.3001631
0.9147773 2.8 -0.243313
0.8327758 2.8 -0.1913012
0.7455885 2.8 -0.1486775
0.6520524 2.8 -0.1233764
0.5552557 2.8 -0.124494
0.4617527 2.8 -0.1500428
0.3744553 2.8 -0.1924357
0.2930377 2.8 -0.2453219
0.2161499 2.8 -0.3046569
0.1424482 2.8 -0.3679151
0.07074383 2.8 -0.4334377
0 2.8 -0.5
4 2.79 -0.5
3.934048 2.79 -0.4286867
3.866153 2.79 -0.3592346
3.794007 2.79 -0.2942473
3.71461 2.79 -0.238462
3.625039 2.79 -0.2018153
3.528699 2.79 -0.200612
3.438191 2.79 -0.2349782
3.355579 2.79 -0.2859788
3.277085 2.79 -0.3431885
3.199111 2.79 -0.401115
3.11822 2.79 -0.4548477
3.030675 2.79 -0.4965331
2.935187 2.79 -0.5099323
2.842664 2.79 -0.4823111
2.76072 2.79 -0.430416
2.686295 2.79 -0.3680411
2.615501 2.79 -0.3015286
2.545094 2.79 -0.2346095
2.47177 2.79 -0.1709236
2.391328 2.79 -0.116708
2.299553 2.79 -0.08697343
2.204332 2.79 -0.1014299
2.118719 2.79 -0.1468568
2.041806 2.79 -0.2060875
1.969833 2.79 -0.2713072
1.899875 2.79 -0.3386986
1.829535 2.79 -0.4056866
1.756428 2.79 -0.4696205
1.677743 2.79 -0.5264723
1.590373 2.79 -0.5683562
1.494658 2.79 -0.5813726
1.399648 2.79 -0.5627313
1.310837 2.79 -0.5236878
1.227705 2.79 -0.4735149
1.148323 2.79 -0.4175487
1.070828 2.79 -0.3589887
0.9935307 2.79 -0.3001631
0.9147773 2.79 -0.243313
0.8327758 2.79 -0.1913012
0.7455885 2.79 -0.1486775
0.6520524 2.79 -0.1233764
0.5552557 2.79 -0.124494
0.4617527 2.79 -0.1500428
0.3744553 2.79 -0.1924357
0.2930377 2.79 -0.2453219
0.2161499 2.79 -0.3046569
0.1424482 2.79 -0.3679151
0.07074383 2.79 -0.4334377
0 2.79 -0.5
4 2.78 -0.5
3.934048 2.78 -0.4286867
3.866153 2.78 -0.3592346
3.794007 2.78 -0.2942473
3.71461 2.78 -0.238462
3.625039 2.78 -0.2018153
3.528699 2.78 -0.200612
3.438191 2.78 -0.2349782
3.355579 2.78 -0.2859788
3.277085 2.78 -0.3431885
3.199111 2.78 -0.401115
3.11822 2.78 -0.4548477
3.030675 2.78 -0.4965331
2.935187 2.78 -0.5099323
2.842664 2.78 -0.4823111
2.76072 2.78 -0.430416
2.686295 2.78 -0.3680411
2.615501 2.78 -0.3015286
2.545094 2.78 -0.2346095
2.47177 2.78 -0.1709236
2.391328 2.78 -0.116708
2.299553 2.78 -0.08697343
2.204332 2.78 -0.1014299
2.118719 2.78 -0.1468568
2.041806 2.78 -0.2060875
1.969833 2.78 -0.2713072
1.899875 2.78 -0.3386986
1.829535 2.78 -0.4056866
1.756428 2.78 -0.4696205
1.677743 2.78 -0.5264723
1.590373 2.78 -0.5683562
1.494658 2.78 -0.5813726
1.399648 2.78 -0.5627313
1.310837 2.78 -0.5236878
1.227705 2.78 -0.4735149
1.148323 2.78 -0.4175487
1.070828 2.78 -0.3589887
0.9935307 2.78 -0.3001631
0.9147773 2.78 -0.243313
0.8327758 2.78 -0.1913012
0.7455885 2.78 -0.1486775
0.6520524 2.78 -0.1233764
0.5552557 2.78 -0.124494
0.4617527 2.78 -0.1500428
0.3744553 2.78 -0.1924357
0.2930377 2.78 -0.2453219
0.2161499 2.78 -0.3046569
0.1424482 2.78 -0.3679151
0.07074383 2.78 -0.4334377
0 2.78 -0.5
4 2.77 -0.5
3.934048 2.77 -0.4286867
3.866153 2.77 -0.3592346
3.794007 2.77 -0.2942473
3.71461 2.77 -0.238462
3.625039 2.77 -0.2018153
3.528699 2.77 -0.200612
3.438191 2.77 -0.2349782
3.355579 2.77 -0.2859788
3.277085 2.77 -0.3431885
3.199111 2.77 -0.401115
3.11822 2.77 -0.4548477
3.030675 2.77 -0.4965331
2.935187 2.77 -0.5099323
2.842664 2.77 -0.4823111
2.76072 2.77 -0.430416
2.686295 2.77 -0.3680411
2.615501 2.77 -0.3015286
2.545094 2.77 -0.2346095
2.47177 2.77 -0.1709236
2.391328 2.77 -0.116708
2.299553 2.77 -0.08697343
2.204332 2.77 -0.1014299
2.118719 2.77 -0.1468568
2.041806 2.77 -0.2060875
1.969833 2.77 -0.2713072
1.899875 2.77 -0.3386986
1.829535 2.77 -0.4056866
1.756428 2.77 -0.4696205
1.677743 2.77 -0.5264723
1.590373 2.77 -0.5683562
1.494658 2.77 -0.5813726
1.399648 2.77 -0.5627313
1.310837 2.77 -0.5236878
1.227705 2.77 -0.4735149
1.148323 2.77 -0.4175487
1.070828 2.77 -0.3589887
0.9935307 2.77 -0.3001631
0.9147773 2.77 -0.243313
0.8327758 2.77 -0.1913012
0.7455885 2.77 -0.1486775
0.6520524 2.77 -0.1233764
0.5552557 2.77 -0.124494
0.4617527 2.77 -0.1500428
0.3744553 2.77 -0.1924357
0.2930377 2.77 -0.2453219
0.2161499 2.77 -0.3046569
0.1424482 2.77 -0.3679151
0.07074383 2.77 -0.4334377
0 2.77 -0.5
4 2.76 -0.5
3.934048 2.76 -0.4286867
3.866153 2.76 -0.3592346
3.794007 2.76 -0.2942473
3.71461 2.76 -0.238462
3.625039 2.76 -0.2018153
3.528699 2.76 -0.200612
3.438191 2.76 -0.2349782
3.355579 2.76 -0.2859788
3.277085 2.76 -0.3431885
3.199111 2.76 -0.401115
3.11822 2.76 -0.4548477
3.030675 2.76 -0.4965331
2.935187 2.76 -0.5099323
2.842664 2.76 -0.4823111
2.76072 2.76 -0.430416
2.686295 2.76 -0.3680411
2.615501 2.76 -0.3015286
2.545094 2.76 -0.2346095
2.47177 2.76 -0.1709236
2.391328 2.76 -0.116708
2.299553 2.76 -0.08697343
2.204332 2.76 -0.1014299
2.118719 2.76 -0.1468568
2.041806 2.76 -0.2060875
1.969833 2.76 -0.2713072
1.899875 2.76 -0.3386986
1.829535 2.76 -0.4056866
1.756428 2.76 -0.4696205
1.677743 2.76 -0.5264723
1.590373 2.76 -0.5683562
1.494658 2.76 -0.5813726
1.399648 2.76 -0.5627313
1.310837 2.76 -0.5236878
1.227705 2.76 -0.4735149
1.148323 2.76 -0.4175487
1.070828 2.76 -0.3589887
0.9935307 2.76 -0.3001631
0.9147773 2.76 -0.243313
0.8327758 2.76 -0.1913012
0.7455885 2.76 -0.1486775
0.6520524 2.76 -0.1233764
0.5552557 2.76 -0.124494
0.4617527 2.76 -0.1500428
0.3744553 2.76 -0.1924357
0.2930377 2.76 -0.2453219
0.2161499 2.76 -0.3046569
0.1424482 2.76 -0.3679151
0.07074383 2.76 -0.4334377
0 2.76 -0.5
4 2.75 -0.5
3.934048 2.75 -0.4286867
3.866153 2.75 -0.3592346
3.794007 2.75 -0.2942473
3.71461 2.75 -0.238462
3.625039 2.75 -0.2018153
3.528699 2.75 -0.200612
3.438191 2.75 -0.2349782
3.355579 2.75 -0.2859788
3.277085 2.75 -0.3431885
3.199111 2.75 -0.401115
3.11822 2.75 -0.4548477
3.030675 2.75 -0.4965331
2.935187 2.75 -0.5099323
2.842664 2.75 -0.4823111
2.76072 2.75 -0.430416
2.686295 2.75 -0.3680411
2.615501 2.75 -0.3015286
2.545094 2.75 -0.2346095
2.47177 2.75 -0.1709236
2.391328 2.75 -0.116708
2.299553 2.75 -0.08697343
2.204332 2.75 -0.1014299
2.118719 2.75 -0.1468568
2.041806 2.75 -0.2060875
1.969833 2.75 -0.2713072
1.899875 2.75 -0.3386986
1.829535 2.75 -0.4056866
1.756428 2.75 -0.4696205
1.677743 2.75 -0.5264723
1.590373 2.75 -0.5683562
1.494658 2.75 -0.5813726
1.399648 2.75 -0.5627313
1.310837 2.75 -0.5236878
1.227705 2.75 -0.4735149
1.148323 2.75 -0.4175487
1.070828 2.75 -0.3589887
0.9935307 2.75 -0.3001631
0.9147773 2.75 -0.243313
0.8327758 2.75 -0.1913012
0.7455885 2.75 -0.1486775
0.6520524 2.75 -0.1233764
0.5552557 2.75 -0.124494
0.4617527 2.75 -0.1500428
0.3744553 2.75 -0.1924357
0.2930377 2.75 -0.2453219
0.2161499 2.75 -0.3046569
0.1424482 2.75 -0.3679151
0.07074383 2.75 -0.4334377
0 2.75 -0.5
4 2.74 -0.5
3.934048 2.74 -0.4286867
3.866153 2.74 -0.3592346
3.794007 2.74 -0.2942473
3.71461 2.74 -0.238462
3.625039 2.74 -0.2018153
3.528699 2.74 -0.200612
3.438191 2.74 -0.2349782
3.355579 2.74 -0.2859788
3.277085 2.74 -0.3431885
3.199111 2.74 -0.401115
3.11822 2.74 -0.4548477
3.030675 2.74 -0.4965331
2.935187 2.74 -0.5099323
2.842664 2.74 -0.4823111
2.76072 2.74 -0.430416
2.686295 2.74 -0.3680411
2.615501 2.74 -0.3015286
2.545094 2.74 -0.2346095
2.47177 2.74 -0.1709236
2.391328 2.74 -0.116708
2.299553 2.74 -0.08697343
2.204332 2.74 -0.1014299
2.118719 2.74 -0.1468568
2.041806 2.74 -0.2060875
1.969833 2.74 -0.2713072
1.899875 2.74 -0.3386986
1.829535 2.74 -0.4056866
1.756428 2.74 -0.4696205
1.677743 2.74 -0.5264723
1.590373 2.74 -0.5683562
1.494658 2.74 -0.5813726
1.399648 2.74 -0.5627313
1.310837 2.74 -0.5236878
1.227705 2.74 -0.4735149
1.148323 2.74 -0.4175487
1.070828 2.74 -0.3589887
0.9935307 2.74 -0.3001631
0.9147773 2.74 -0.243313
0.8327758 2.74 -0.1913012
0.7455885 2.74 -0.1486775
0.6520524 2.74 -0.1233764
0.5552557 2.74 -0.124494
0.4617527 2.74 -0.1500428
0.3744553 2.74 -0.1924357
0.2930377 2.74 -0.2453219
0.2161499 2.74 -0.3046569
0.1424482 2.74 -0.3679151
0.07074383 2.74 -0.4334377
0 2.74 -0.5
4 2.73 -0.5
3.934048 2.73 -0.4286867
3.866153 2.73 -0.3592346
3.794007 2.73 -0.2942473
3.71461 2.73 -0.238462
3.625039 2.73 -0.2018153
3.528699 2.73 -0.200612
3.438191 2.73 -0.2349782
3.355579 2.73 -0.2859788
3.277085 2.73 -0.3431885
3.199111 2.73 -0.401115
3.11822 2.73 -0.4548477
3.030675 2.73 -0.4965331
2.935187 2.73 -0.5099323
2.842664 2.73 -0.4823111
2.76072 2.73 -0.430416
2.686295 2.73 -0.3680411
2.615501 2.73 -0.3015286
2.545094 2.73 -0.2346095
2.47177 2.73 -0.1709236
2.391328 2.73 -0.116708
2.299553 2.73 -0.08697343
2.204332 2.73 -0.1014299
2.118719 2.73 -0.1468568
2.041806 2.73 -0.2060875
1.969833 2.73 -0.2713072
1.899875 2.73 -0.3386986
1.829535 2.73 -0.4056866
1.756428 2.73 -0.4696205
1.677743 2.73 -0.5264723
1.590373 2.73 -0.5683562
1.494658 2.73 -0.5813726
1.399648 2.73 -0.5627313
1.310837 2.73 -0.5236878
1.227705 2.73 -0.4735149
1.148323 2.73 -0.4175487
1.070828 2.73 -0.3589887
0.9935307 2.73 -0.3001631
0.9147773 2.73 -0.243313
0.8327758 2.73 -0.1913012
0.7455885 2.73 -0.1486775
0.6520524 2.73 -0.1233764
0.5552557 2.73 -0.124494
0.4617527 2.73 -0.1500428
0.3744553 2.73 -0.1924357
0.2930377 2.73 -0.2453219
0.2161499 2.73 -0.3046569
0.1424482 2.73 -0.3679151
0.07074383 2.73 -0.4334377
0 2.73 -0.5
4 2.72 -0.5
3.934048 2.72 -0.4286867
3.866153 2.72 -0.3592346
3.794007 2.72 -0.2942473
3.71461 2.72 -0.238462
3.625039 2.72 -0.2018153
3.528699 2.72 -0.200612
3.438191 2.72 -0.2349782
3.355579 2.72 -0.2859788
3.277085 2.72 -0.3431885
3.199111 2.72 -0.401115
3.11822 2.72 -0.4548477
3.030675 2.72 -0.4965331
2.935187 2.72 -0.5099323
2.842664 2.72 -0.4823111
2.76072 2.72 -0.430416
2.686295 2.72 -0.3680411
2.615501 2.72 -0.3015286
2.545094 2.72 -0.2346095
2.47177 2.72 -0.1709236
2.391328 2.72 -0.116708
2.299553 2.72 -0.08697343
2.204332 2.72 -0.1014299
2.118719 2.72 -0.1468568
2.041806 2.72 -0.2060875
1.969833 2.72 -0.2713072
1.899875 2.72 -0.3386986
1.829535 2.72 -0.4056866
1.756428 2.72 -0.4696205
1.677743 2.72 -0.5264723
1.590373 2.72 -0.5683562
1.494658 2.72 -0.5813726
1.399648 2.72 -0.5627313
1.310837 2.72 -0.5236878
1.227705 2.72 -0.4735149
1.148323 2.72 -0.4175487
1.070828 2.72 -0.3589887
0.9935307 2.72 -0.3001631
0.9147773 2.72 -0.243313
0.8327758 2.72 -0.1913012
0.7455885 2.72 -0.1486775
0.6520524 2.72 -0.1233764
0.5552557 2.72 -0.124494
0.4617527 2.72 -0.1500428
0.3744553 2.72 -0.1924357
0.2930377 2.72 -0.2453219
0.2161499 2.72 -0.3046569
0.1424482 2.72 -0.3679151
0.07074383 2.72 -0.4334377
0 2.72 -0.5
4 2.71 -0.5
3.934048 2.71 -0.4286867
3.866153 2.71 -0.3592346
3.794007 2.71 -0.2942473
3.71461 2.71 -0.238462
3.625039 2.71 -0.2018153
3.528699 2.71 -0.200612
3.438191 2.71 -0.2349782
3.355579 2.71 -0.2859788
3.277085 2.71 -0.3431885
3.199111 2.71 -0.401115
3.11822 2.71 -0.4548477
3.030675 2.71 -0.4965331
2.935187 2.71 -0.5099323
2.842664 2.71 -0.4823111
2.76072 2.71 -0.430416
2.686295 2.71 -0.3680411
2.615501 2.71 -0.3015286
2.545094 2.71 -0.2346095
2.47177 2.71 -0.1709236
2.391328 2.71 -0.116708
2.299553 2.71 -0.08697343
2.204332 2.71 -0.1014299
2.118719 2.71 -0.1468568
2.041806 2.71 -0.2060875
1.969833 2.71 -0.2713072
1.899875 2.71 -0.3386986
1.829535 2.71 -0.4056866
1.756428 2.71 -0.4696205
1.677743 2.71 -0.5264723
1.590373 2.71 -0.5683562
1.494658 2.71 -0.5813726
1.399648 2.71 -0.5627313
1.310837 2.71 -0.5236878
1.227705 2.71 -0.4735149
1.148323 2.71 -0.4175487
1.070828 2.71 -0.3589887
0.9935307 2.71 -0.3001631
0.9147773 2.71 -0.243313
0.8327758 2.71 -0.1913012
0.7455885 2.71 -0.1486775
0.6520524 2.71 -0.1233764
0.5552557 2.71 -0.124494
0.4617527 2.71 -0.1500428
0.3744553 2.71 -0.1924357
0.2930377 2.71 -0.2453219
0.2161499 2.71 -0.3046569
0.1424482 2.71 -0.3679151
0.07074383 2.71 -0.4334377
0 2.71 -0.5
4 2.7 -0.5
3.934048 2.7 -0.4286867
3.866153 2.7 -0.3592346
3.794007 2.7 -0.2942473
3.71461 2.7 -0.238462
3.625039 2.7 -0.2018153
3.528699 2.7 -0.200612
3.438191 2.7 -0.2349782
3.355579 2.7 -0.2859788
3.277085 2.7 -0.3431885
3.199111 2.7 -0.401115
3.11822 2.7 -0.4548477
3.030675 2.7 -0.4965331
2.935187 2.7 -0.5099323
2.842664 2.7 -0.4823111
2.76072 2.7 -0.430416
2.686295 2.7 -0.3680411
2.615501 2.7 -0.3015286
2.545094 2.7 -0.2346095
2.47177 2.7 -0.1709236
2.391328 2.7 -0.116708
2.299553 2.7 -0.08697343
2.204332 2.7 -0.1014299
2.118719 2.7 -0.1468568
2.041806 2.7 -0.2060875
1.969833 2.7 -0.2713072
1.899875 2.7 -0.3386986
1.829535 2.7 -0.4056866
1.756428 2.7 -0.4696205
1.677743 2.7 -0.5264723
1.590373 2.7 -0.5683562
1.494658 2.7 -0.5813726
1.399648 2.7 -0.5627313
1.310837 2.7 -0.5236878
1.227705 2.7 -0.4735149
1.148323 2.7 -0.4175487
1.070828 2.7 -0.3589887
0.9935307 2.7 -0.3001631
0.9147773 2.7 -0.243313
0.8327758 2.7 -0.1913012
0.7455885 2.7 -0.1486775
0.6520524 2.7 -0.1233764
0.5552557 2.7 -0.124494
0.4617527 2.7 -0.1500428
0.3744553 2.7 -0.1924357
0.2930377 2.7 -0.2453219
0.2161499 2.7 -0.3046569
0.1424482 2.7 -0.3679151
0.07074383 2.7 -0.4334377
0 2.7 -0.5
4 2.69 -0.5
3.934048 2.69 -0.4286867
3.866153 2.69 -0.3592346
3.794007 2.69 -0.2942473
3.71461 2.69 -0.238462
3.625039 2.69 -0.2018153
3.528699 2.69 -0.200612
3.438191 2.69 -0.2349782
3.355579 2.69 -0.2859788
3.277085 2.69 -0.3431885
3.199111 2.69 -0.401115
3.11822 2.69 -0.4548477
3.030675 2.69 -0.4965331
2.935187 2.69 -0.5099323
2.842664 2.69 -0.4823111
2.76072 2.69 -0.430416
2.686295 2.69 -0.3680411
2.615501 2.69 -0.3015286
2.545094 2.69 -0.2346095
2.47177 2.69 -0.1709236
2.391328 2.69 -0.116708
2.299553 2.69 -0.08697343
2.204332 2.69 -0.1014299
2.118719 2.69 -0.1468568
2.041806 2.69 -0.2060875
1.969833 2.69 -0.2713072
1.899875 2.69 -0.3386986
1.829535 2.69 -0.4056866
1.756428 2.69 -0.4696205
1.677743 2.69 -0.5264723
1.590373 2.69 -0.5683562
1.494658 2.69 -0.5813726
1.399648 2.69 -0.5627313
1.310837 2.69 -0.5236878
1.227705 2.69 -0.4735149
1.148323 2.69 -0.4175487
1.070828 2.69 -0.3589887
0.9935307 2.69 -0.3001631
0.9147773 2.69 -0.243313
0.8327758 2.69 -0.1913012
0.7455885 2.69 -0.1486775
0.6520524 2.69 -0.1233764
0.5552557 2.69 -0.124494
0.4617527 2.69 -0.1500428
0.3744553 2.69 -0.1924357
0.2930377 2.69 -0.2453219
0.2161499 2.69 -0.3046569
0.1424482 2.69 -0.3679151
0.07074383 2.69 -0.4334377
0 2.69 -0.5
4 2.68 -0.5
3.934048 2.68 -0.4286867
3.866153 2.68 -0.3592346
3.794007 2.68 -0.2942473
3.71461 2.68 -0.238462
3.625039 2.68 -0.2018153
3.528699 2.68 -0.200612
3.438191 2.68 -0.2349782
3.355579 2.68 -0.2859788
3.277085 2.68 -0.3431885
3.199111 2.68 -0.401115
3.11822 2.68 -0.4548477
3.030675 2.68 -0.4965331
2.935187 2.68 -0.5099323
2.842664 2.68 -0.4823111
2.76072 2.68 -0.430416
2.686295 2.68 -0.3680411
2.615501 2.68 -0.3015286
2.545094 2.68 -0.2346095
2.47177 2.68 -0.1709236
2.391328 2.68 -0.116708
2.299553 2.68 -0.08697343
2.204332 2.68 -0.1014299
2.118719 2.68 -0.1468568
2.041806 2.68 -0.2060875
1.969833 2.68 -0.2713072
1.899875 2.68 -0.3386986
1.829535 2.68 -0.4056866
1.756428 2.68 -0.4696205
1.677743 2.68 -0.5264723
1.590373 2.68 -0.5683562
1.494658 2.68 -0.5813726
1.399648 2.68 -0.5627313
1.310837 2.68 -0.5236878
1.227705 2.68 -0.4735149
1.148323 2.68 -0.4175487
1.070828 2.68 -0.3589887
0.9935307 2.68 -0.3001631
0.9147773 2.68 -0.243313
0.8327758 2.68 -0.1913012
0.7455885 2.68 -0.1486775
0.6520524 2.68 -0.1233764
0.5552557 2.68 -0.124494
0.4617527 2.68 -0.1500428
0.3744553 2.68 -0.1924357
0.2930377 2.68 -0.2453219
0.2161499 2.68 -0.3046569
0.1424482 2.68 -0.3679151
0.07074383 2.68 -0.4334377
0 2.68 -0.5
4 2.67 -0.5
3.934048 2.67 -0.4286867
3.866153 2.67 -0.3592346
3.794007 2.67 -0.2942473
3.71461 2.67 -0.238462
3.625039 2.67 -0.2018153
3.528699 2.67 -0.200612
3.438191 2.67 -0.2349782
3.355579 2.67 -0.2859788
3.277085 2.67 -0.3431885
3.199111 2.67 -0.401115
3.11822 2.67 -0.4548477
3.030675 2.67 -0.4965331
2.935187 2.67 -0.5099323
2.842664 2.67 -0.4823111
2.76072 2.67 -0.430416
2.686295 2.67 -0.3680411
2.615501 2.67 -0.3015286
2.545094 2.67 -0.2346095
2.47177 2.67 -0.1709236
2.391328 2.67 -0.116708
2.299553 2.67 -0.08697343
2.204332 2.67 -0.1014299
2.118719 2.67 -0.1468568
2.041806 2.67 -0.2060875
1.969833 2.67 -0.2713072
1.899875 2.67 -0.3386986
1.829535 2.67 -0.4056866
1.756428 2.67 -0.4696205
1.677743 2.67 -0.5264723
1.590373 2.67 -0.5683562
1.494658 2.67 -0.5813726
1.399648 2.67 -0.5627313
1.310837 2.67 -0.5236878
1.227705 2.67 -0.4735149
1.148323 2.67 -0.4175487
1.070828 2.67 -0.3589887
0.9935307 2.67 -0.3001631
0.9147773 2.67 -0.243313
0.8327758 2.67 -0.1913012
0.7455885 2.67 -0.1486775
0.6520524 2.67 -0.1233764
0.5552557 2.67 -0.124494
0.4617527 2.67 -0.1500428
0.3744553 2.67 -0.1924357
0.2930377 2.67 -0.2453219
0.2161499 2.67 -0.3046569
0.1424482 2.67 -0.3679151
0.07074383 2.67 -0.4334377
0 2.67 -0.5
4 2.66 -0.5
3.934048 2.66 -0.4286867
3.866153 2.66 -0.3592346
3.794007 2.66 -0.2942473
3.71461 2.66 -0.238462
3.625039 2.66 -0.2018153
3.528699 2.66 -0.200612
3.438191 2.66 -0.2349782
3.355579 2.66 -0.2859788
3.277085 2.66 -0.3431885
3.199111 2.66 -0.401115
3.11822 2.66 -0.4548477
3.030675 2.66 -0.4965331
2.935187 2.66 -0.5099323
2.842664 2.66 -0.4823111
2.76072 2.66 -0.430416
2.686295 2.66 -0.3680411
2.615501 2.66 -0.3015286
2.545094 2.66 -0.2346095
2.47177 2.66 -0.1709236
2.391328 2.66 -0.116708
2.299553 2.66 -0.08697343
2.204332 2.66 -0.1014299
2.118719 2.66 -0.1468568
2.041806 2.66 -0.2060875
1.969833 2.66 -0.2713072
1.899875 2.66 -0.3386986
1.829535 2.66 -0.4056866
1.756428 2.66 -0.4696205
1.677743 2.66 -0.5264723
1.590373 2.66 -0.5683562
1.494658 2.66 -0.5813726
1.399648 2.66 -0.5627313
1.310837 2.66 -0.5236878
1.227705 2.66 -0.4735149
1.148323 2.66 -0.4175487
1.070828 2.66 -0.3589887
0.9935307 2.66 -0.3001631
0.9147773 2.66 -0.243313
0.8327758 2.66 -0.1913012
0.7455885 2.66 -0.1486775
0.6520524 2.66 -0.1233764
0.5552557 2.66 -0.124494
0.4617527 2.66 -0.1500428
0.3744553 2.66 -0.1924357
0.2930377 2.66 -0.2453219
0.2161499 2.66 -0.3046569
0.1424482 2.66 -0.3679151
0.07074383 2.66 -0.4334377
0 2.66 -0.5
4 2.65 -0.5
3.934048 2.65 -0.4286867
3.866153 2.65 -0.3592346
3.794007 2.65 -0.2942473
3.71461 2.65 -0.238462
3.625039 2.65 -0.2018153
3.528699 2.65 -0.200612
3.438191 2.65 -0.2349782
3.355579 2.65 -0.2859788
3.277085 2.65 -0.3431885
3.199111 2.65 -0.401115
3.11822 2.65 -0.4548477
3.030675 2.65 -0.4965331
2.935187 2.65 -0.5099323
2.842664 2.65 -0.4823111
2.76072 2.65 -0.430416
2.686295 2.65 -0.3680411
2.615501 2.65 -0.3015286
2.545094 2.65 -0.2346095
2.47177 2.65 -0.1709236
2.391328 2.65 -0.116708
2.299553 2.65 -0.08697343
2.204332 2.65 -0.1014299
2.118719 2.65 -0.1468568
2.041806 2.65 -0.2060875
1.969833 2.65 -0.2713072
1.899875 2.65 -0.3386986
1.829535 2.65 -0.4056866
1.756428 2.65 -0.4696205
1.677743 2.65 -0.5264723
1.590373 2.65 -0.5683562
1.494658 2.65 -0.5813726
1.399648 2.65 -0.5627313
1.310837 2.65 -0.5236878
1.227705 2.65 -0.4735149
1.148323 2.65 -0.4175487
1.070828 2.65 -0.3589887
0.9935307 2.65 -0.3001631
0.9147773 2.65 -0.243313
0.8327758 2.65 -0.1913012
0.7455885 2.65 -0.1486775
0.6520524 2.65 -0.1233764
0.5552557 2.65 -0.124494
0.4617527 2.65 -0.1500428
0.3744553 2.65 -0.1924357
0.2930377 2.65 -0.2453219
0.2161499 2.65 -0.3046569
0.1424482 2.65 -0.3679151
0.07074383 2.65 -0.4334377
0 2.65 -0.5
4 2.64 -0.5
3.934048 2.64 -0.4286867
3.866153 2.64 -0.3592346
3.794007 2.64 -0.2942473
3.71461 2.64 -0.238462
3.625039 2.64 -0.2018153
3.528699 2.64 -0.200612
3.438191 2.64 -0.2349782
3.355579 2.64 -0.2859788
3.277085 2.64 -0.3431885
3.199111 2.64 -0.401115
3.11822 2.64 -0.4548477
3.030675 2.64 -0.4965331
2.935187 2.64 -0.5099323
2.842664 2.64 -0.4823111
2.76072 2.64 -0.430416
2.686295 2.64 -0.3680411
2.615501 2.64 -0.3015286
2.545094 2.64 -0.2346095
2.47177 2.64 -0.1709236
2.391328 2.64 -0.116708
2.299553 2.64 -0.08697343
2.204332 2.64 -0.1014299
2.118719 2.64 -0.1468568
2.041806 2.64 -0.2060875
1.969833 2.64 -0.2713072
1.899875 2.64 -0.3386986
1.829535 2.64 -0.4056866
1.756428 2.64 -0.4696205
1.677743 2.64 -0.5264723
1.590373 2.64 -0.5683562
1.494658 2.64 -0.5813726
1.399648 2.64 -0.5627313
1.310837 2.64 -0.5236878
1.227705 2.64 -0.4735149
1.148323 2.64 -0.4175487
1.070828 2.64 -0.3589887
0.9935307 2.64 -0.3001631
0.9147773 2.64 -0.243313
0.8327758 2.64 -0.1913012
0.7455885 2.64 -0.1486775
0.6520524 2.64 -0.1233764
0.5552557 2.64 -0.124494
0.4617527 2.64 -0.1500428
0.3744553 2.64 -0.1924357
0.2930377 2.64 -0.2453219
0.2161499 2.64 -0.3046569
0.1424482 2.64 -0.3679151
0.07074383 2.64 -0.4334377
0 2.64 -0.5
4 2.63 -0.5
3.934048 2.63 -0.4286867
3.866153 2.63 -0.3592346
3.794007 2.63 -0.2942473
3.71461 2.63 -0.238462
3.625039 2.63 -0.2018153
3.528699 2.63 -0.200612
3.438191 2.63 -0.2349782
3.355579 2.63 -0.2859788
3.277085 2.63 -0.3431885
3.199111 2.63 -0.401115
3.11822 2.63 -0.4548477
3.030675 2.63 -0.4965331
2.935187 2.63 -0.5099323
2.842664 2.63 -0.4823111
2.76072 2.63 -0.430416
2.686295 2.63 -0.3680411
2.615501 2.63 -0.3015286
2.545094 2.63 -0.2346095
2.47177 2.63 -0.1709236
2.391328 2.63 -0.116708
2.299553 2.63 -0.08697343
2.204332 2.63 -0.1014299
2.118719 2.63 -0.1468568
2.041806 2.63 -0.2060875
1.969833 2.63 -0.2713072
1.899875 2.63 -0.3386986
1.829535 2.63 -0.4056866
1.756428 2.63 -0.4696205
1.677743 2.63 -0.5264723
1.590373 2.63 -0.5683562
1.494658 2.63 -0.5813726
1.399648 2.63 -0.5627313
1.310837 2.63 -0.5236878
1.227705 2.63 -0.4735149
1.148323 2.63 -0.4175487
1.070828 2.63 -0.3589887
0.9935307 2.63 -0.3001631
0.9147773 2.63 -0.243313
0.8327758 2.63 -0.1913012
0.7455885 2.63 -0.1486775
0.6520524 2.63 -0.1233764
0.5552557 2.63 -0.124494
0.4617527 2.63 -0.1500428
0.3744553 2.63 -0.1924357
0.2930377 2.63 -0.2453219
0.2161499 2.63 -0.3046569
0.1424482 2.63 -0.3679151
0.07074383 2.63 -0.4334377
0 2.63 -0.5
4 2.62 -0.5
3.934048 2.62 -0.4286867
3.866153 2.62 -0.3592346
3.794007 2.62 -0.2942473
3.71461 2.62 -0.238462
3.625039 2.62 -0.2018153
3.528699 2.62 -0.200612
3.438191 2.62 -0.2349782
3.355579 2.62 -0.2859788
3.277085 2.62 -0.3431885
3.199111 2.62 -0.401115
3.11822 2.62 -0.4548477
3.030675 2.62 -0.4965331
2.935187 2.62 -0.5099323
2.842664 2.62 -0.4823111
2.76072 2.62 -0.430416
2.686295 2.62 -0.3680411
2.615501 2.62 -0.3015286
2.545094 2.62 -0.2346095
2.47177 2.62 -0.1709236
2.391328 2.62 -0.116708
2.299553 2.62 -0.08697343
2.204332 2.62 -0.1014299
2.118719 2.62 -0.1468568
2.041806 2.62 -0.2060875
1.969833 2.62 -0.2713072
1.899875 2.62 -0.3386986
1.829535 2.62 -0.4056866
1.756428 2.62 -0.4696205
1.677743 2.62 -0.5264723
1.590373 2.62 -0.5683562
1.494658 2.62 -0.5813726
1.399648 2.62 -0.5627313
1.310837 2.62 -0.5236878
1.227705 2.62 -0.4735149
1.148323 2.62 -0.4175487
1.070828 2.62 -0.3589887
0.9935307 2.62 -0.3001631
0.9147773 2.62 -0.243313
0.8327758 2.62 -0.1913012
0.7455885 2.62 -0.1486775
0.6520524 2.62 -0.1233764
0.5552557 2.62 -0.124494
0.4617527 2.62 -0.1500428
0.3744553 2.62 -0.1924357
0.2930377 2.62 -0.2453219
0.2161499 2.62 -0.3046569
0.1424482 2.62 -0.3679151
0.07074383 2.62 -0.4334377
0 2.62 -0.5
4 2.61 -0.5
3.934048 2.61 -0.4286867
3.866153 2.61 -0.3592346
3.794007 2.61 -0.2942473
3.71461 2.61 -0.238462
3.625039 2.61 -0.2018153
3.528699 2.61 -0.200612
3.438191 2.61 -0.2349782
3.355579 2.61 -0.2859788
3.277085 2.61 -0.3431885
3.199111 2.61 -0.401115
3.11822 2.61 -0.4548477
3.030675 2.61 -0.4965331
2.935187 2.61 -0.5099323
2.842664 2.61 -0.4823111
2.76072 2.61 -0.430416
2.686295 2.61 -0.3680411
2.615501 2.61 -0.3015286
2.545094 2.61 -0.2346095
2.47177 2.61 -0.1709236
2.391328 2.61 -0.116708
2.299553 2.61 -0.08697343
2.204332 2.61 -0.1014299
2.118719 2.61 -0.1468568
2.041806 2.61 -0.2060875
1.969833 2.61 -0.2713072
1.899875 2.61 -0.3386986
1.829535 2.61 -0.4056866
1.756428 2.61 -0.4696205
1.677743 2.61 -0.5264723
1.590373 2.61 -0.5683562
1.494658 2.61 -0.5813726
1.399648 2.61 -0.5627313
1.310837 2.61 -0.5236878
1.227705 2.61 -0.4735149
1.148323 2.61 -0.4175487
1.070828 2.61 -0.3589887
0.9935307 2.61 -0.3001631
0.9147773 2.61 -0.243313
0.8327758 2.61 -0.1913012
0.7455885 2.61 -0.1486775
0.6520524 2.61 -0.1233764
0.5552557 2.61 -0.124494
0.4617527 2.61 -0.1500428
0.3744553 2.61 -0.1924357
0.2930377 2.61 -0.2453219
0.2161499 2.61 -0.3046569
0.1424482 2.61 -0.3679151
0.07074383 2.61 -0.4334377
0 2.61 -0.5
4 2.6 -0.5
3.934048 2.6 -0.4286867
3.866153 2.6 -0.3592346
3.794007 2.6 -0.2942473
3.71461 2.6 -0.238462
3.625039 2.6 -0.2018153
3.528699 2.6 -0.200612
3.438191 2.6 -0.2349782
3.355579 2.6 -0.2859788
3.277085 2.6 -0.3431885
3.199111 2.6 -0.401115
3.11822 2.6 -0.4548477
3.030675 2.6 -0.4965331
2.935187 2.6 -0.5099323
2.842664 2.6 -0.4823111
2.76072 2.6 -0.430416
2.686295 2.6 -0.3680411
2.615501 2.6 -0.3015286
2.545094 2.6 -0.2346095
2.47177 2.6 -0.1709236
2.391328 2.6 -0.116708
2.299553 2.6 -0.08697343
2.204332 2.6 -0.1014299
2.118719 2.6 -0.1468568
2.041806 2.6 -0.2060875
1.969833 2.6 -0.2713072
1.899875 2.6 -0.3386986
1.829535 2.6 -0.4056866
1.756428 2.6 -0.4696205
1.677743 2.6 -0.5264723
1.590373 2.6 -0.5683562
1.494658 2.6 -0.5813726
1.399648 2.6 -0.5627313
1.310837 2.6 -0.5236878
1.227705 2.6 -0.4735149
1.148323 2.6 -0.4175487
1.070828 2.6 -0.3589887
0.9935307 2.6 -0.3001631
0.9147773 2.6 -0.243313
0.8327758 2.6 -0.1913012
0.7455885 2.6 -0.1486775
0.6520524 2.6 -0.1233764
0.5552557 2.6 -0.124494
0.4617527 2.6 -0.1500428
0.3744553 2.6 -0.1924357
0.2930377 2.6 -0.2453219
0.2161499 2.6 -0.3046569
0.1424482 2.6 -0.3679151
0.07074383 2.6 -0.4334377
0 2.6 -0.5
4 2.59 -0.5
3.934048 2.59 -0.4286867
3.866153 2.59 -0.3592346
3.794007 2.59 -0.2942473
3.71461 2.59 -0.238462
3.625039 2.59 -0.2018153
3.528699 2.59 -0.200612
3.438191 2.59 -0.2349782
3.355579 2.59 -0.2859788
3.277085 2.59 -0.3431885
3.199111 2.59 -0.401115
3.11822 2.59 -0.4548477
3.030675 2.59 -0.4965331
2.935187 2.59 -0.5099323
2.842664 2.59 -0.4823111
2.76072 2.59 -0.430416
2.686295 2.59 -0.3680411
2.615501 2.59 -0.3015286
2.545094 2.59 -0.2346095
2.47177 2.59 -0.1709236
2.391328 2.59 -0.116708
2.299553 2.59 -0.08697343
2.204332 2.59 -0.1014299
2.118719 2.59 -0.1468568
2.041806 2.59 -0.2060875
1.969833 2.59 -0.2713072
1.899875 2.59 -0.3386986
1.829535 2.59 -0.4056866
1.756428 2.59 -0.4696205
1.677743 2.59 -0.5264723
1.590373 2.59 -0.5683562
1.494658 2.59 -0.5813726
1.399648 2.59 -0.5627313
1.310837 2.59 -0.5236878
1.227705 2.59 -0.4735149
1.148323 2.59 -0.4175487
1.070828 2.59 -0.3589887
0.9935307 2.59 -0.3001631
0.9147773 2.59 -0.243313
0.8327758 2.59 -0.1913012
0.7455885 2.59 -0.1486775
0.6520524 2.59 -0.1233764
0.5552557 2.59 -0.124494
0.4617527 2.59 -0.1500428
0.3744553 2.59 -0.1924357
0.2930377 2.59 -0.2453219
0.2161499 2.59 -0.3046569
0.1424482 2.59 -0.3679151
0.07074383 2.59 -0.4334377
0 2.59 -0.5
4 2.58 -0.5
3.934048 2.58 -0.4286867
3.866153 2.58 -0.3592346
3.794007 2.58 -0.2942473
3.71461 2.58 -0.238462
3.625039 2.58 -0.2018153
3.528699 2.58 -0.200612
3.438191 2.58 -0.2349782
3.355579 2.58 -0.2859788
3.277085 2.58 -0.3431885
3.199111 2.58 -0.401115
3.11822 2.58 -0.4548477
3.030675 2.58 -0.4965331
2.935187 2.58 -0.5099323
2.842664 2.58 -0.4823111
2.76072 2.58 -0.430416
2.686295 2.58 -0.3680411
2.615501 2.58 -0.3015286
2.545094 2.58 -0.2346095
2.47177 2.58 -0.1709236
2.391328 2.58 -0.116708
2.299553 2.58 -0.08697343
2.204332 2.58 -0.1014299
2.118719 2.58 -0.1468568
2.041806 2.58 -0.2060875
1.969833 2.58 -0.2713072
1.899875 2.58 -0.3386986
1.829535 2.58 -0.4056866
1.756428 2.58 -0.4696205
1.677743 2.58 -0.5264723
1.590373 2.58 -0.5683562
1.494658 2.58 -0.5813726
1.399648 2.58 -0.5627313
1.310837 2.58 -0.5236878
1.227705 2.58 -0.4735149
1.148323 2.58 -0.4175487
1.070828 2.58 -0.3589887
0.9935307 2.58 -0.3001631
0.9147773 2.58 -0.243313
0.8327758 2.58 -0.1913012
0.7455885 2.58 -0.1486775
0.6520524 2.58 -0.1233764
0.5552557 2.58 -0.124494
0.4617527 2.58 -0.1500428
0.3744553 2.58 -0.1924357
0.2930377 2.58 -0.2453219
0.2161499 2.58 -0.3046569
0.1424482 2.58 -0.3679151
0.07074383 2.58 -0.4334377
0 2.58 -0.5
4 2.57 -0.5
3.934048 2.57 -0.4286867
3.866153 2.57 -0.3592346
3.794007 2.57 -0.2942473
3.71461 2.57 -0.238462
3.625039 2.57 -0.2018153
3.528699 2.57 -0.200612
3.438191 2.57 -0.2349782
3.355579 2.57 -0.2859788
3.277085 2.57 -0.3431885
3.199111 2.57 -0.401115
3.11822 2.57 -0.4548477
3.030675 2.57 -0.4965331
2.935187 2.57 -0.5099323
2.842664 2.57 -0.4823111
2.76072 2.57 -0.430416
2.686295 2.57 -0.3680411
2.615501 2.57 -0.3015286
2.545094 2.57 -0.2346095
2.47177 2.57 -0.1709236
2.391328 2.57 -0.116708
2.299553 2.57 -0.08697343
2.204332 2.57 -0.1014299
2.118719 2.57 -0.1468568
2.041806 2.57 -0.2060875
1.969833 2.57 -0.2713072
1.899875 2.57 -0.3386986
1.829535 2.57 -0.4056866
1.756428 2.57 -0.4696205
1.677743 2.57 -0.5264723
1.590373 2.57 -0.5683562
1.494658 2.57 -0.5813726
1.399648 2.57 -0.5627313
1.310837 2.57 -0.5236878
1.227705 2.57 -0.4735149
1.148323 2.57 -0.4175487
1.070828 2.57 -0.3589887
0.9935307 2.57 -0.3001631
0.9147773 2.57 -0.243313
0.8327758 2.57 -0.1913012
0.7455885 2.57 -0.1486775
0.6520524 2.57 -0.1233764
0.5552557 2.57 -0.124494
0.4617527 2.57 -0.1500428
0.3744553 2.57 -0.1924357
0.2930377 2.57 -0.2453219
0.2161499 2.57 -0.3046569
0.1424482 2.57 -0.3679151
0.07074383 2.57 -0.4334377
0 2.57 -0.5
4 2.56 -0.5
3.934048 2.56 -0.4286867
3.866153 2.56 -0.3592346
3.794007 2.56 -0.2942473
